# .PCD v0.7 - Point Cloud Data file format
VERSION 0.7
FIELDS x y z
SIZE 4 4 4
TYPE F F F
COUNT 1 1 1
WIDTH 1585
HEIGHT 1
VIEWPOINT 0 0 0 1 0 0 0
POINTS 1585
DATA ascii
2.2808414 3.4915638 110.67168
-3.0018854 2.9196012 111.19762
-8.250802 3.0167108 109.96668
-13.500452 3.1453028 108.65167
-18.760511 3.0309763 107.97568
-23.999125 3.9789448 104.50272
-29.259588 4.4693766 102.23263
-34.529228 4.6358299 100.81367
-39.801414 3.962831 101.60867
-45.069012 3.7287481 101.24665
-50.336777 3.5616589 100.70766
-55.621719 4.1780944 98.100243
-60.910736 4.5309916 96.187057
-66.236664 5.6562557 92.229652
-71.532333 5.7489643 91.001556
-76.816742 5.5994148 90.41449
-82.079422 5.1298957 90.673676
-87.413467 5.724534 88.114777
-92.791054 6.7470589 84.418945
-98.04435 6.1441364 85.03183
-103.29216 5.562809 85.589821
-108.54214 5.0828476 85.878853
-113.93713 5.9473534 82.59774
-119.33418 6.7201319 79.557236
-124.66515 6.868278 78.175835
-129.95721 6.6899815 77.661804
-135.16418 5.9227958 78.716614
-140.53018 6.2882996 76.755753
-145.82019 6.1209927 76.214157
-151.19418 6.4687729 74.298416
-156.5042 6.4237013 73.429657
-162.06718 7.752697 68.892586
-167.6102 8.8743858 64.905151
-173.05519 9.3930378 62.525314
-178.58522 10.28317 59.151333
-183.9762 10.454632 57.696587
-189.61816 11.736454 53.269051
-195.2652 12.947963 49.026112
-201.30119 15.741223 40.539726
-207.78418 20.179415 27.634987
-214.01723 23.338512 18.148199
-222.10123 33.47831 -10.086801
259.64191 65.404373 11.308069
251.82587 59.783482 24.554581
244.33789 54.80267 36.189545
238.02788 52.760334 40.357872
230.46484 47.236271 53.399075
223.68396 43.652863 61.511486
217.09486 40.465538 68.622833
211.04285 38.697609 72.123703
204.82487 36.362698 77.07341
198.51396 33.645481 83.010712
192.50584 31.743612 86.86924
186.67688 30.322142 89.502441
181.17288 29.895315 89.597923
175.72287 29.628717 89.283684
170.17392 29.013689 89.863533
164.54881 28.106485 91.19178
158.72881 26.452377 94.437706
153.0089 25.083149 96.956932
147.39189 24.030991 98.666161
141.97781 23.718521 98.477356
136.55592 23.360641 98.408005
131.10588 22.868296 98.686859
125.54292 21.866436 100.27375
120.06991 21.199389 101.00275
114.49089 20.005983 103.08772
109.00283 19.168535 104.25972
103.44583 17.937214 106.44968
97.999252 17.1751 107.43276
92.570557 16.462593 108.2877
87.169991 15.853327 108.87878
81.797157 15.358381 109.17771
76.408348 14.735154 109.80762
71.054153 14.278708 110.00673
65.682793 13.662906 110.62074
60.280422 12.777692 111.93365
54.958755 12.403481 111.9247
49.70845 12.569328 110.51768
44.379948 12.099315 110.75768
38.998726 11.104587 112.3607
33.614944 9.9468327 114.38967
28.345467 9.8252897 113.73067
23.053654 9.4405479 113.75367
17.752346 8.8943481 114.20071
12.547974 9.5555477 111.50365
7.3087063 9.9059582 109.61763
2.0302658 9.6423168 109.32771
-3.2774391 8.7657166 110.63566
-8.5273514 8.9627914 109.14568
-13.759632 9.833889 105.89862
-19.026525 9.8887358 104.7766
-24.300566 9.7852173 104.07059
-29.572731 9.6808128 103.36465
-34.847694 9.5379362 102.75964
-40.12014 9.5401459 101.77565
-45.394024 9.5384932 100.8016
-50.67104 9.5629473 99.761444
-55.960678 10.039153 97.534584
-61.260975 10.561622 95.185539
-66.587753 11.49449 91.758987
-71.889969 11.609162 90.474655
-77.158371 11.079802 90.880356
-82.464874 11.234439 89.493813
-87.814484 11.939447 86.65625
-93.197708 12.913639 83.110641
-98.41687 11.819207 85.005074
-103.64617 10.990259 86.20343
-108.89218 10.451234 86.64003
-114.27914 11.243997 83.565948
-119.60217 11.366399 82.260452
-124.92419 11.456343 81.0383
-130.16418 10.923588 81.45713
-135.4292 10.604544 81.317276
-140.73018 10.559122 80.449516
-146.0522 10.639003 79.255325
-151.41116 10.933786 77.491035
-156.79221 11.3099 75.51059
-162.28323 12.267199 71.986725
-167.82321 13.394579 68.011932
-173.2972 14.087259 65.185043
-178.88422 15.274216 61.046383
-184.2162 15.161792 60.350395
-189.61221 15.3532 58.849274
-195.17419 16.249775 55.47319
-201.08417 18.571171 48.307732
-207.27718 21.910854 38.42664
-213.25813 24.1847 31.37151
-219.6292 27.836266 20.641506
248.84894 58.338226 43.42691
242.47986 56.127762 47.980469
236.33192 54.424244 51.260166
228.99287 49.392929 62.950481
222.83382 47.453854 66.839432
216.65092 45.368225 71.104462
210.62686 43.659004 74.419769
204.35294 41.133091 79.810051
198.09593 38.549927 85.350685
192.14487 36.803692 88.778343
186.26186 35.194599 91.863815
180.70088 34.567558 92.458801
175.29588 34.439621 91.789825
170.02789 34.78223 89.928307
164.47993 34.155464 90.525299
158.75188 32.848045 92.855141
153.00784 31.412537 95.51593
147.31689 30.098738 97.869308
141.84486 29.584105 98.190193
136.39087 29.117052 98.393494
130.90587 28.495445 98.990288
125.43389 27.895285 99.533012
119.9079 27.016268 100.78973
114.47585 26.520372 101.07069
108.87288 25.175972 103.51972
103.36887 24.229834 104.9557
97.887764 23.333519 106.26463
92.581467 23.321997 105.31371
87.220222 23.001661 105.1507
81.795174 22.28854 105.99567
76.400955 21.707884 106.50369
71.004745 21.070589 107.15864
65.677185 20.836435 106.77763
60.226265 19.709032 108.69267
54.868664 19.172293 109.09467
49.533413 18.756701 109.18471
44.195431 18.272629 109.45064
38.865334 17.818712 109.64265
33.508022 17.042345 110.66465
28.180162 16.462799 111.18172
22.84166 15.672638 112.24271
17.54673 15.296984 112.23672
12.346729 16.203629 108.92166
7.1231174 16.956604 106.00266
1.819272 16.538506 106.10671
-3.515491 15.372949 108.13965
-8.7902927 15.286569 107.38664
-14.027767 16.282047 103.83571
-19.298153 16.659819 101.88169
-24.593063 16.098888 102.35669
-29.87731 15.848257 102.02864
-35.158165 15.847381 101.05261
-40.444859 16.58827 98.152023
-45.739162 17.047184 95.98114
-51.040768 17.389036 94.114853
-56.351151 17.8155 92.024963
-61.654968 17.853395 90.944443
-66.970108 18.112656 89.288757
-72.271042 17.937206 88.764023
-77.577637 17.907661 87.859077
-82.922974 18.458132 85.440506
-88.279259 19.037796 82.946785
-93.627892 19.384974 81.054985
-98.889565 18.646469 81.997375
-104.12915 17.79689 83.229164
-109.40415 17.390287 83.309563
-114.72919 17.491207 82.059425
-120.03617 17.40839 81.293137
-125.2972 16.954775 81.495445
-130.49818 16.103676 82.742455
-135.78423 15.927492 82.219383
-141.07318 15.787504 81.603699
-146.44217 16.170462 79.6166
-151.83221 16.620632 77.450905
-157.28519 17.397951 74.425529
-162.66119 17.674162 72.715385
-168.11118 18.319445 70.032318
-173.60019 19.095984 67.001717
-179.20621 20.387878 62.613541
-184.63219 20.723581 60.738949
-190.0282 20.895756 59.294186
-195.67917 22.172939 54.936737
-201.4232 23.769316 49.733479
-207.45818 26.465952 41.621803
-213.12218 27.500092 37.891392
-219.39723 30.848623 28.043976
-225.7572 34.321648 17.861162
250.13593 53.683544 71.059601
246.19189 57.612278 60.222626
239.56786 54.588055 66.778778
233.85194 53.901222 67.489822
227.08493 50.288826 75.532539
221.62288 50.210365 74.726128
215.39394 47.922504 79.460777
209.79996 47.41 79.745255
203.61386 45.093945 84.559464
197.62692 43.288452 88.098373
191.57088 41.18705 92.385551
185.74789 39.743507 95.022934
180.14594 38.962097 95.99958
174.63493 38.454041 96.286163
169.18681 38.146297 96.073593
163.82291 38.122589 95.142021
158.32393 37.612724 95.440033
152.66692 36.48119 97.305496
147.01492 35.30658 99.28244
141.50285 34.630375 100.00371
136.02989 34.076569 100.4157
130.55092 33.47337 100.95676
124.96685 32.372387 102.75872
119.42188 31.378824 104.28768
113.99585 30.880173 104.56768
108.56879 30.353323 104.92265
103.09587 29.556156 105.96272
97.585358 28.509758 107.63672
92.280495 28.505396 106.66669
86.983551 28.559343 105.55066
81.539574 27.74663 106.63169
76.133614 27.105362 107.2847
70.721703 26.373737 108.16768
65.452003 26.549126 106.74072
60.018208 25.572454 108.2497
54.605225 24.654461 109.61363
49.238346 24.002014 110.29861
43.903263 23.555323 110.4617
38.631233 23.642105 109.26665
33.285648 23.026201 109.86269
27.916924 22.071835 111.32465
22.572292 21.254892 112.43869
17.288166 21.079622 111.91563
12.052953 21.57254 109.68071
6.8329344 22.446018 106.46767
1.5316191 22.133791 106.29365
-3.7959023 21.177122 107.77065
-9.074687 21.118824 106.94367
-14.33343 21.672571 104.54871
-19.598888 22.330078 101.88365
-24.90604 21.352579 103.41862
-30.190319 21.287262 102.60963
-35.476376 21.06884 102.19767
-40.764858 22.45833 97.643707
-46.064404 22.72064 95.991348
-51.374668 23.287621 93.551567
-56.661835 22.629507 94.266754
-61.972748 22.912725 92.557098
-67.277893 22.919548 91.56012
-72.601166 23.267019 89.682114
-77.900948 23.062296 89.231453
-83.26165 23.833693 86.257812
-88.57206 23.731537 85.536957
-93.893097 23.767181 84.463837
-99.131393 22.840229 85.878983
-104.41718 22.54953 85.651932
-109.71515 22.387276 85.090263
-115.03318 22.443806 83.961945
-120.30816 22.077869 83.930557
-125.55819 21.571253 84.262749
-130.77017 20.8281 85.210136
-136.07521 20.802519 84.296188
-141.32719 20.415623 84.323601
-146.62816 20.382235 83.428459
-152.00114 20.775972 81.423752
-157.4382 21.505764 78.541023
-162.7572 21.49815 77.579041
-168.15718 21.916544 75.505943
-173.62617 22.666964 72.562958
-179.2782 24.249161 67.450821
-184.7832 25.006893 64.48494
-190.24519 25.516886 62.162434
-195.86414 26.682245 58.126797
-201.42322 27.500393 54.996414
-207.16719 29.043756 49.963211
-213.01825 30.913321 44.074638
-219.05322 33.393265 36.579483
-226.90216 42.660976 11.288322
244.4809 59.267685 70.870575
237.99991 56.528938 76.663841
232.22588 55.616142 77.928902
225.77092 52.769257 84.002914
220.4749 53.105877 82.166771
214.90494 52.663288 82.269028
209.23793 51.918228 83.12381
203.45786 50.803104 84.905563
197.45387 48.941822 88.548813
191.60683 47.498619 91.151825
185.62494 45.551071 95.020134
179.97585 44.62553 96.339554
174.38184 43.842415 97.306229
168.88887 43.380161 97.474731
163.51387 43.321102 96.634224
158.2039 43.505562 95.18409
152.63084 42.707954 96.190941
147.02087 41.722542 97.672935
141.35785 40.467602 99.830582
135.83383 39.722069 100.71463
130.28488 38.827324 101.97476
124.8289 38.289177 102.34171
119.3539 37.64196 102.98369
113.95487 37.30706 102.84172
108.49086 36.638905 103.53972
103.11089 36.355637 103.27171
97.63562 35.556557 104.3017
92.303223 35.483307 103.50368
86.937424 35.222363 103.18169
81.493057 34.470158 104.09573
76.064484 33.763531 104.90071
70.639999 33.011726 105.81764
65.373245 33.294624 104.1237
59.989346 32.764828 104.48267
54.585255 32.025482 105.3747
49.144447 30.901302 107.23965
43.793434 30.433353 107.44669
38.503601 30.47743 106.35966
33.156544 29.981339 106.64066
27.761566 28.890314 108.42867
22.384233 27.828442 110.1466
17.092882 27.70257 109.49368
11.831763 27.996628 107.77268
6.6235971 29.250931 103.61267
1.3125591 28.964884 103.36269
-4.013833 28.320444 104.02571
-9.3130159 28.121071 103.55565
-14.592018 28.545477 101.50072
-19.88063 28.841869 99.767075
-25.195686 27.984541 100.97563
-30.492767 27.847536 100.34966
-35.787182 28.057455 98.83696
-41.090553 28.911777 95.679474
-46.403648 29.448313 93.333344
-51.722443 29.823841 91.392471
-57.028606 29.476467 91.30024
-62.346054 29.567299 90.089462
-67.646149 29.165668 90.136856
-72.967941 29.306736 88.795868
-78.269852 29.024837 88.538338
-83.628227 29.664036 85.917786
-88.947243 29.599119 85.103775
-94.262489 29.500809 84.373192
-99.550064 29.063227 84.514519
-104.82017 28.510292 84.954018
-110.14014 28.499565 84.001259
-115.44417 28.347408 83.410599
-120.74322 28.155973 82.922653
-126.03117 27.882135 82.648636
-131.2892 27.40892 82.886597
-136.5802 27.20257 82.43647
-141.79518 26.502701 83.262238
-147.04721 26.087868 83.353348
-152.41116 26.405169 81.553925
-157.74419 26.501852 80.322121
-163.05316 26.441 79.50029
-168.41721 26.681974 77.894768
-173.89017 27.453949 74.916786
-179.46323 28.66873 70.789032
-184.95119 29.379335 67.965889
-190.59323 30.748611 63.431416
-196.17221 31.730953 59.893391
-201.76617 32.708042 56.372658
-207.47725 34.119591 51.717407
-213.38017 36.211521 45.290527
-219.39322 38.609215 38.063015
-225.7222 42.086639 28.020979
254.15192 76.315109 44.499966
244.60591 65.721985 69.559578
237.33792 60.861404 80.523926
230.98589 58.332184 85.757156
224.67287 55.811695 90.977539
219.43185 56.261833 88.873207
213.98393 56.133099 88.198509
208.52682 55.969982 87.60463
202.69592 54.664371 89.838074
196.7818 53.03968 92.862328
190.97293 51.682255 95.227776
185.06689 49.94503 98.539413
179.35687 48.787216 100.42078
173.75592 47.948261 101.51374
168.14285 47.032509 102.79974
162.71683 46.74646 102.52471
157.47585 47.146179 100.54971
152.05487 46.878246 100.22866
146.68884 46.82357 99.380341
141.1669 46.131569 100.11577
135.59885 45.212543 101.41672
129.93489 43.82159 103.8947
124.33087 42.618458 105.91074
118.9919 42.560154 105.07471
113.60985 42.30098 104.74068
108.32889 42.535995 103.1757
102.91484 42.104416 103.27171
97.474434 41.505455 103.78768
92.018974 40.785568 104.60568
86.58107 40.105232 105.32565
81.099892 39.119366 106.81374
75.723686 38.71365 106.84967
70.363739 38.389339 106.6857
65.132904 38.935051 104.34268
59.774475 38.617027 104.15973
54.338512 37.672272 105.55272
48.878773 36.412411 107.73669
43.512478 35.828827 108.22568
38.212749 35.815434 107.28573
32.851643 35.177567 107.91462
27.475822 34.302299 109.14066
22.155046 33.941639 109.07365
16.847954 33.712944 108.67567
11.5537 33.619293 107.93967
6.3143892 34.452301 104.8667
1.0289068 34.683315 103.31065
-4.2833061 34.421352 102.99564
-9.5842133 34.374706 102.13767
-14.887848 34.317085 101.30666
-20.18034 34.64946 99.490967
-25.501812 33.757206 100.77067
-30.79937 34.061432 99.028259
-36.103729 34.021709 98.151695
-41.412003 34.50378 95.955048
-46.724873 34.723331 94.422256
-52.04554 35.077343 92.546875
-57.352074 34.72406 92.463196
-62.671188 34.79068 91.317215
-67.975632 34.481583 91.123344
-73.323433 35.111794 88.542816
-78.632828 34.850811 88.22863
-83.970871 35.105171 86.599747
-89.285583 34.956692 85.998672
-94.586678 34.626572 85.860817
-99.849289 33.920174 86.678055
-105.08718 33.036114 87.951218
-110.42718 33.277439 86.35936
-115.7722 33.507412 84.794365
-121.06622 33.263813 84.435928
-126.33018 32.795692 84.653839
-131.5952 32.370632 84.760643
-136.87718 32.11631 84.431305
-142.08113 31.346579 85.423424
-147.28221 30.620035 86.304924
-152.64618 30.951361 84.478828
-158.00719 31.239466 82.764084
-163.39722 31.657663 80.712791
-168.75615 31.861372 79.210526
-174.1602 32.280338 77.157715
-179.64622 33.071846 74.142715
-185.07422 33.515652 72.02179
-190.64616 34.598114 68.257088
-196.03017 34.75399 66.871193
-201.60419 35.712925 63.420021
-207.2542 36.938843 59.274925
-213.27719 39.612831 51.396652
-219.42923 42.628311 42.63356
-225.91223 46.748726 31.010115
-235.45822 62.139767 -9.7064476
256.71194 74.850327 63.782402
253.02687 79.582329 51.221283
244.84987 72.514084 67.468567
237.64799 67.824333 77.924614
230.96082 64.379829 85.345764
224.44788 61.288101 91.915314
218.77684 60.508408 92.831573
213.43787 60.678123 91.424835
208.01286 60.600143 90.623589
202.22986 59.418476 92.52887
196.54288 58.487747 93.820526
190.85687 57.524906 95.195885
185.16483 56.495529 96.735649
179.50189 55.521008 98.141296
173.88289 54.653908 99.285774
168.1769 53.441402 101.28476
162.59886 52.634205 102.28773
157.16785 52.340069 102.02974
151.72386 51.986431 101.91771
146.31689 51.762028 101.48776
140.99385 51.87677 100.22167
135.47388 51.173042 100.97372
129.83391 49.902458 103.1297
124.26287 48.867241 104.70473
118.92085 48.838947 103.7957
113.57584 48.799664 102.9137
108.14084 48.310516 103.14369
102.86089 48.602745 101.44073
97.488068 48.419209 100.91474
92.079254 48.02597 100.90868
86.547066 46.882034 102.76569
80.993416 45.517426 105.17266
75.634331 45.279865 104.78662
70.336388 45.442265 103.40366
65.062965 45.80101 101.53659
59.689278 45.458702 101.40575
54.222054 44.35696 103.17068
48.77776 43.316975 104.78273
43.380222 42.568203 105.67265
38.031666 42.201324 105.60967
32.640903 41.361092 106.73056
27.321262 41.178402 106.21166
21.982027 40.761314 106.27966
16.675241 40.700497 105.45867
11.341341 40.242313 105.62863
6.0976419 41.202515 102.25363
0.80422211 41.512737 100.50268
-4.4949789 41.807716 98.787956
-9.8332424 41.26915 99.160599
-15.139647 41.531799 97.528076
-20.46048 41.378304 96.934868
-25.772011 41.787735 94.932945
-31.090969 42.144604 93.058784
-36.416485 42.718464 90.64006
-41.746655 42.407166 90.441879
-47.081978 42.742687 88.621117
-52.410889 42.478477 88.303276
-57.744789 42.443298 87.413536
-63.06374 41.985435 87.585869
-68.398544 41.997364 86.576134
-73.754181 42.413055 84.549416
-79.071396 42.029396 84.537834
-84.414551 42.106567 83.360817
-89.747879 42.020184 82.600365
-95.064934 41.712971 82.394974
-100.32612 40.822948 83.663033
-105.54317 39.569946 85.8498
-110.88916 39.76569 84.37764
-116.19315 39.513912 84.035881
-121.51717 39.475018 83.156815
-126.7732 38.87849 83.688004
-132.07916 38.708065 83.143303
-137.27313 37.752815 84.586601
-142.5162 37.211903 84.981644
-147.74519 36.623833 85.498306
-153.18919 37.419804 82.500717
-158.50319 37.361904 81.668961
-163.85817 37.532242 80.26017
-169.19817 37.606491 79.09285
-174.65018 38.247566 76.481171
-180.0132 38.394753 75.12645
-185.36119 38.44371 74.022903
-190.78818 38.849953 72.004578
-196.25221 39.396355 69.631294
-201.84622 40.475014 65.8936
-207.52718 41.84256 61.415531
-213.43021 44.039986 54.8144
-219.48022 46.686153 47.058929
-225.89717 50.613091 36.016232
-233.50021 58.782646 14.106779
249.70496 77.0149 71.994522
243.33482 74.598892 76.845612
237.54385 73.67971 78.075089
230.95584 70.495636 84.802704
224.47285 67.485939 91.111588
218.25786 65.132011 95.83709
212.45288 63.905235 97.828979
206.85187 63.247604 98.439911
201.19287 62.385971 99.549713
195.75388 62.189213 99.041321
190.15192 61.454128 99.845856
184.61292 60.902092 100.20772
178.9169 59.788712 101.93871
173.39484 59.231823 102.31171
167.76096 58.252266 103.71971
162.2699 57.752171 103.95966
156.79892 57.303612 104.07372
151.4549 57.331635 103.0257
146.03487 57.061859 102.70374
140.62988 56.84362 102.25574
134.9718 55.542053 104.46172
129.37585 54.430477 106.20667
123.85585 53.596554 107.27068
118.52186 53.590527 106.30766
113.19289 53.618614 105.26172
107.79388 53.301067 105.06266
102.49689 53.495441 103.6077
97.184441 53.630367 102.29665
91.757889 53.142563 102.51866
86.255211 52.166145 103.94476
80.701195 50.792107 106.34872
75.326363 50.459965 106.19071
70.057991 50.824696 104.31474
64.686508 50.500557 104.13861
59.316193 50.161358 103.99873
53.846413 49.007748 105.87168
48.478447 48.584248 105.94473
43.08952 47.911354 106.63065
37.691288 47.080391 107.71262
32.303455 46.241821 108.81369
26.991436 46.132568 108.11166
21.675171 45.972195 107.53769
16.394754 46.288391 105.77963
11.074257 46.095753 105.28865
5.8186655 46.948883 102.19963
0.55206585 47.875034 98.924538
-4.7599926 48.098381 97.392853
-10.093578 47.900517 96.908524
-15.418229 47.917591 95.891495
-20.73675 48.318665 93.917175
-26.061157 48.734604 91.905151
-31.396442 48.877079 90.573486
-36.734459 49.051754 89.157944
-42.072159 48.576565 89.363754
-47.409492 48.455986 88.685463
-52.742851 48.140434 88.496101
-58.070564 47.742897 88.509781
-63.388405 47.190578 88.911766
-68.733124 47.432423 87.32988
-74.106544 48.146832 84.565178
-79.436691 47.907822 84.182327
-84.77037 47.754105 83.587479
-90.095879 47.497078 83.251556
-95.402863 47.037415 83.424873
-100.67216 46.214912 84.505508
-105.93017 45.375473 85.634247
-111.26618 45.399525 84.597061
-116.51717 44.641617 85.524048
-121.79816 44.233559 85.572052
-127.04617 43.582104 86.232086
-132.34421 43.376968 85.771042
-137.50018 42.15868 87.86261
-142.71022 41.419514 88.74913
-147.95418 40.975021 88.894333
-153.38521 41.722691 86.038895
-158.70918 41.768005 84.947632
-164.02321 41.726093 84.07943
-169.35719 41.805328 82.904137
-174.76921 42.270901 80.751137
-180.12019 42.395153 79.463181
-185.43018 42.301075 78.724213
-190.79622 42.471226 77.313995
-196.33818 43.423782 73.927414
-201.94926 44.614029 69.932076
-207.63124 46.025101 65.374397
-213.26323 47.141705 61.560703
-219.16614 49.270031 55.176544
-225.41815 52.645725 45.621597
-232.41516 58.643784 29.396576
249.57683 82.818863 72.353943
243.16286 80.274521 77.469894
237.77292 80.465256 76.011154
231.71588 78.787613 79.051575
225.22189 75.784081 85.28791
218.66888 72.485374 92.243378
212.32195 69.666084 98.049507
206.5629 68.533012 99.796844
200.78288 67.284027 101.82679
195.35291 67.109573 101.26374
189.76787 66.422295 101.94073
184.34988 66.267128 101.33372
178.77788 65.575996 102.02079
173.33192 65.304848 101.69572
167.67682 64.263863 103.23669
162.30383 64.220032 102.35975
156.82393 63.77351 102.46271
151.45287 63.733753 101.57671
145.96286 63.215691 101.85271
140.47496 62.682873 102.16573
134.91685 61.818291 103.28773
129.34488 60.844101 104.67471
123.94387 60.592785 104.30874
118.59091 60.564217 103.39872
113.17585 60.23037 103.23369
107.63187 59.223656 104.7077
102.32588 59.409752 103.27875
97.076355 59.927174 101.03967
91.798294 60.332729 99.071968
86.271828 59.296028 100.62171
80.749557 58.20034 102.31872
75.308075 57.534645 102.9697
69.99482 57.697605 101.59474
64.502808 56.599323 103.30567
59.069386 55.825378 104.2247
53.687447 55.39473 104.30363
48.354046 55.33741 103.46964
42.957752 54.713764 104.02472
37.485878 53.27639 106.57568
32.084194 52.365498 107.83971
26.785736 52.498638 106.54063
21.457844 52.310791 106.02869
16.219933 53.331535 102.54861
10.905877 53.434204 101.32168
5.652029 54.641357 97.379471
0.36911106 55.604088 94.03064
-4.9709892 55.658993 92.91967
-10.318698 55.564323 92.175491
-15.659555 55.651554 90.981056
-20.998785 56.030857 89.06987
-26.343597 56.318558 87.377892
-31.700157 56.145493 86.825638
-37.053288 56.337849 85.372368
-42.410492 56.339397 84.387352
-47.770542 56.408947 83.236809
-53.122025 56.005043 83.255737
-58.44685 54.812286 85.229141
-63.770863 54.047371 86.144096
-69.115646 53.997826 85.290062
-74.488167 54.491108 83.088593
-79.813057 53.976082 83.387337
-85.178459 54.223354 81.794052
-90.507271 53.865025 81.705757
-95.845772 53.681099 81.183708
-101.11517 52.720333 82.594185
-106.42316 52.294842 82.674461
-111.71514 51.769505 83.005432
-116.96419 50.905556 84.179527
-122.24722 50.428326 84.391968
-127.5652 50.274998 83.799118
-132.81319 49.601669 84.504364
-137.95119 48.192329 87.046516
-143.1212 47.125996 88.737923
-148.44119 47.143108 87.721313
-153.80315 47.419727 86.054703
-159.10916 47.315636 85.344345
-164.36816 46.954395 85.274971
-169.6692 46.834476 84.601379
-175.0482 47.140842 82.859062
-180.41023 47.324993 81.4226
-185.80823 47.669151 79.5858
-191.16019 47.760029 78.380875
-196.77618 49.053234 74.157921
-202.43419 50.441975 69.689941
-208.07123 51.648335 65.675613
-213.59622 52.299438 63.057491
-219.2142 53.297276 59.560886
-225.33315 56.193027 51.283813
-231.57726 59.392677 42.234993
-237.89125 62.679352 32.955193
257.87897 96.395996 55.208572
249.70789 89.324318 71.060341
242.76083 85.329453 79.590096
236.96091 84.375641 80.869804
231.20387 83.508995 81.943802
224.89384 81.005707 86.930832
218.48395 78.103043 92.878532
212.03889 74.975189 99.37281
206.13393 73.383217 102.20077
200.21989 71.6959 105.25677
194.61287 70.929153 106.11269
188.94391 69.925491 107.53969
183.60492 69.999603 106.38269
178.04884 69.324059 107.02568
172.83588 69.846931 104.79266
167.20781 68.877289 106.14173
161.93489 69.200211 104.38775
156.44983 68.723892 104.55269
151.15886 68.99839 102.91572
145.72891 68.725594 102.59174
140.24187 68.200813 102.87675
134.7218 67.506966 103.56969
129.08786 66.263985 105.58971
123.70387 66.101517 105.00571
118.3789 66.22094 103.74069
113.09386 66.550858 101.96671
107.5769 65.722412 102.9917
102.17989 65.469315 102.62667
96.774452 65.170982 102.37071
91.503937 65.625534 100.29475
86.07901 65.199356 100.3487
80.65728 64.758057 100.43974
75.183052 63.941475 101.44368
69.782028 63.564789 101.38066
64.31675 62.6842 102.54169
58.843147 61.657845 104.05975
53.47086 61.345081 103.8456
48.101002 61.021084 103.65868
42.698746 60.374523 104.25868
37.204937 58.744682 107.25366
31.807467 57.907375 108.32365
26.508175 58.075474 106.94167
21.247013 58.758118 104.30667
16.030142 60.221188 99.765762
10.736889 60.847202 97.263969
5.4545603 61.851501 93.835083
0.13089943 62.342384 91.660248
-5.2539778 61.639744 92.400177
-10.599763 61.761803 91.122803
-15.959598 61.491211 90.809143
-21.292763 62.364159 87.69519
-26.65826 61.954144 87.720604
-32.014725 62.159229 86.239639
-37.375454 61.651882 86.504761
-42.738258 62.365753 83.772537
-48.102985 62.330963 82.878914
-53.471546 62.453773 81.5989
-58.799992 61.04768 84.075027
-64.131416 60.296921 84.941658
-69.461975 59.674656 85.496078
-74.822952 59.867687 84.041939
-80.157753 59.522243 83.915543
-85.514023 59.543747 82.885323
-90.834473 59.063217 83.091537
-96.121635 58.230888 84.166687
-101.41719 57.612274 84.716721
-106.74217 57.394478 84.279251
-112.06719 57.176758 83.841614
-117.3052 56.187798 85.309509
-122.52822 55.184036 86.816582
-127.80618 54.731205 86.964722
-132.97417 53.462536 89.132133
-138.12019 52.168983 91.367104
-143.26514 50.983009 93.335609
-148.65619 51.538807 90.985306
-153.95914 51.467876 90.192276
-159.29317 51.583229 88.935089
-164.49619 50.924984 89.59922
-169.72919 50.480099 89.735016
-175.03717 50.46447 88.803131
-180.42221 50.822742 86.941315
-185.88922 51.565792 84.121368
-191.32922 52.128956 81.746078
-196.88519 53.17062 78.178467
-202.5592 54.67083 73.463455
-208.10622 55.516968 70.374641
-213.74313 56.68766 66.473717
-219.24623 57.235497 64.126823
-225.0872 59.080936 58.533401
-230.89119 60.676491 53.561302
-237.15424 63.904465 44.498283
263.27194 102.22968 56.689053
257.49683 101.59561 57.180519
249.99887 96.283211 68.738136
242.99895 92.143555 77.536629
237.0479 90.789062 79.74855
231.08389 89.347168 82.170044
224.76888 86.820679 87.16964
218.47687 84.263535 92.245682
212.31589 81.994522 96.641556
206.56493 80.915657 98.2202
200.59485 79.088303 101.57772
194.61893 77.163803 105.17275
188.77289 75.584389 107.95071
183.10883 74.559212 109.41273
177.73093 74.490112 108.59972
172.49989 74.952042 106.52174
167.11086 74.856682 105.77171
161.7989 75.057579 104.31567
156.3008 74.548859 104.55172
150.97792 74.718506 103.16881
145.47594 74.160553 103.52266
140.10185 74.12561 102.62868
134.68089 73.883118 102.23175
129.19191 73.325226 102.58876
123.78087 73.100227 102.14773
118.39788 73.005898 101.39874
113.08685 73.269936 99.78717
107.65585 72.936073 99.609871
102.27487 72.851791 98.83342
96.793648 72.211876 99.393471
91.462135 72.39254 97.980713
86.029167 71.991165 97.968872
80.658134 71.948082 97.092674
75.248779 71.656784 96.817596
69.856049 71.454926 96.323997
64.457375 71.208832 95.940292
58.920452 69.864769 98.200569
53.520668 69.505402 98.092094
48.082161 68.774956 98.878265
42.710155 68.573502 98.387581
37.210548 67.083656 101.0117
31.843275 66.815041 100.68669
26.556957 67.453766 98.169571
21.303581 68.63575 94.333786
16.037676 69.920998 90.248718
10.662362 69.795639 89.574242
5.335784 70.500877 86.885559
-0.056578636 70.164505 86.723045
-5.4508018 69.653702 86.98262
-10.835707 69.259407 86.958534
-16.210472 69.112 86.339432
-21.564476 69.80574 83.674622
-26.945826 69.453674 83.550095
-32.319382 69.626328 82.150238
-37.69701 69.131683 82.375603
-43.078674 69.983421 79.321251
-48.461952 70.031631 78.223099
-53.839344 69.67952 78.099136
-59.177929 68.169418 80.800446
-64.520035 67.241211 82.08696
-69.861244 66.628998 82.601624
-75.238174 66.858757 81.063652
-80.566971 66.160416 81.791748
-85.903763 65.729927 81.866318
-91.194336 64.722267 83.352516
-96.479752 63.81398 84.601074
-101.78313 63.225624 85.066231
-107.12917 63.195095 84.166023
-112.46217 63.032398 83.588997
-117.74416 62.385044 84.204567
-122.98318 61.453568 85.514313
-128.1992 60.410278 87.103035
-133.34219 58.922665 89.785477
-138.5262 57.87994 91.378601
-143.75919 57.273533 91.899437
-149.1002 57.420689 90.568405
-154.38026 57.183716 90.182487
-159.70818 57.236813 89.082779
-164.98819 56.991875 88.71521
-170.14421 56.077942 89.999985
-175.4202 55.864059 89.559761
-180.78818 56.138103 87.912598
-186.34521 57.326786 84.007118
-191.83522 58.094391 81.139915
-197.23418 58.387028 79.442352
-202.75125 59.188152 76.488907
-208.1122 59.251743 75.357048
-213.86925 60.976532 70.110542
-219.4202 61.746029 67.225311
-225.35417 63.995491 60.667889
-231.27521 66.053436 54.581184
-237.96915 70.902596 41.562599
262.71494 106.97065 59.737862
256.25388 104.48875 64.55555
249.08081 99.976334 74.147041
242.35789 96.53997 81.222366
236.13991 94.40432 85.248154
229.94484 92.249832 89.3228
223.6429 89.694435 94.34613
217.53986 87.633873 98.213516
211.83981 86.730713 99.356499
206.27991 86.229118 99.555275
200.45496 84.86042 101.80067
194.59891 83.327728 104.43571
188.66896 81.478966 107.82276
182.86987 79.996284 110.34667
177.30583 79.27903 111.06763
171.98883 79.424393 109.74976
166.66991 79.57299 108.42275
161.37981 79.847481 106.79573
156.00688 79.813385 105.9017
150.69191 80.023193 104.42774
145.17986 79.423965 104.87164
139.77495 79.260178 104.28473
134.32184 78.874825 104.22369
128.93689 78.782501 103.46473
123.53484 78.611465 102.89668
118.20288 78.77491 101.52969
112.8769 78.985321 100.0547
107.52287 79.076088 98.860229
102.15989 79.129494 97.755875
96.707062 78.690933 97.822891
91.235474 78.10778 98.236099
85.894958 78.29071 96.823219
80.50457 78.176346 96.118782
75.203697 78.667076 93.967758
69.692451 77.726097 95.238007
64.403282 78.343414 92.786064
58.884052 77.237869 94.449394
53.487095 77.032974 93.964737
48.039368 76.369911 94.573883
42.718445 76.807175 92.548424
37.303635 76.392494 92.565659
31.962568 76.727959 90.785728
26.639971 77.347771 88.319633
21.339052 78.385941 84.847252
15.967632 78.628845 83.283028
10.54045 78.092476 83.592285
5.1675186 78.392326 81.890106
-0.26124477 77.699471 82.575516
-5.6467128 77.808678 81.330048
-11.061872 77.162254 81.907143
-16.455925 76.986488 81.34922
-21.838814 77.317413 79.572441
-27.240021 76.705261 80.068977
-32.629646 76.666 79.180901
-38.021065 75.453392 81.128426
-43.405037 75.540703 79.938728
-48.77935 74.784531 80.78756
-54.160465 74.757408 79.873573
-59.532173 74.3806 79.804703
-64.891159 73.746223 80.362015
-70.234047 72.90741 81.417343
-75.577843 72.341469 81.811363
-80.923058 71.866646 81.98526
-86.241074 71.076622 82.92411
-91.540916 70.181503 84.123001
-96.822472 69.194473 85.544365
-102.13116 68.663284 85.860703
-107.45916 68.405426 85.513832
-112.78415 68.151695 85.158211
-118.04919 67.344528 86.150719
-123.28817 66.411453 87.449585
-128.44218 64.883049 90.200836
-133.65721 63.974487 91.44809
-138.85321 63.012001 92.826424
-144.07623 62.337826 93.503349
-149.34418 61.994827 93.376183
-154.61322 61.70298 93.11969
-159.9182 61.643112 92.298943
-165.17419 61.295422 92.182114
-170.28519 60.148884 94.022118
-175.63719 60.377029 92.49733
-180.98521 60.571072 91.055481
-186.55023 61.82518 87.014328
-192.01715 62.518696 84.34462
-197.28418 62.216713 84.116486
-202.63823 62.32655 82.875702
-207.88821 61.964798 82.796959
-213.67821 63.909946 77.04483
-219.40617 65.477158 72.219353
-225.47818 68.322723 64.244347
-231.6832 71.522079 55.388046
-238.24719 75.898247 43.628162
-245.71622 83.365334 24.235601
268.61188 114.11073 58.191063
261.80087 110.76073 64.98085
255.37486 108.32368 69.651604
248.75786 105.27673 75.753586
242.26584 102.46072 81.322906
236.12387 100.53874 84.813744
229.55986 97.31163 91.353996
223.34486 94.989342 95.787727
217.12488 92.560684 100.47776
211.67982 92.437317 99.784225
206.08588 91.836945 100.20674
200.4059 90.937401 101.33276
194.65988 89.779083 103.06372
188.89995 88.526268 105.02173
183.07988 87.003822 107.61268
177.51285 86.314964 108.24972
171.98592 85.738937 108.62676
166.64893 85.854904 107.3797
161.21886 85.62532 106.94466
155.91986 85.902412 105.31767
150.56285 85.967842 104.18777
145.21881 86.095825 102.91173
139.90083 86.34938 101.3377
134.54489 86.457169 100.10573
129.13591 86.330139 99.426659
123.73589 86.25058 98.638695
118.39886 86.47773 97.125916
112.95682 86.193947 96.817688
107.60582 86.377892 95.40374
102.23289 86.463135 94.225075
96.919449 86.900238 92.211197
91.413864 86.236519 92.801811
85.998886 86.090302 92.167252
80.591072 85.983643 91.442368
75.232651 86.218483 89.908463
69.746017 85.558037 90.492287
64.371567 85.688339 89.203415
58.949051 85.471046 88.742439
53.572388 85.612335 87.425522
48.159332 85.466446 86.791191
42.865891 86.448135 83.47847
37.482956 86.670647 81.968445
32.172276 87.743301 78.433182
26.76849 87.896255 77.085045
21.409462 88.677406 74.239662
15.941098 88.076309 74.689308
10.474749 87.374077 75.376801
5.0537391 87.359245 74.430046
-0.41152668 86.447563 75.622215
-5.8267822 86.427795 74.685051
-11.265513 85.807228 75.184204
-16.667585 86.234886 73.176056
-22.089396 86.058662 72.614273
-27.519394 85.190514 73.710678
-32.936634 84.631546 74.066055
-38.346848 83.647583 75.439957
-43.746353 82.989601 76.03614
-49.133434 81.929871 77.59687
-54.511467 81.154083 78.480446
-59.904961 81.199852 77.390419
-65.278694 80.642639 77.752174
-70.634872 79.88121 78.601723
-75.988167 79.200958 79.259468
-81.326057 78.417671 80.166916
-86.676079 77.970284 80.265465
-91.978653 76.919991 81.819511
-97.305672 76.348488 82.224579
-102.58115 75.282707 83.818954
-107.90317 74.836594 83.921906
-113.22018 74.394592 84.016197
-118.49219 73.58857 84.98745
-123.7412 72.658585 86.265099
-128.90918 71.177757 88.873718
-134.20619 70.842422 88.713943
-139.43518 70.038033 89.691322
-144.64517 69.150955 90.873566
-149.8192 68.117996 92.408905
-155.05818 67.585152 92.733871
-160.38516 67.613075 91.699234
-165.73421 67.773964 90.340324
-170.86119 66.661774 92.074837
-176.16518 66.579948 91.309219
-181.4532 66.421066 90.729095
-186.95915 67.348976 87.505936
-192.30415 67.434708 86.331215
-197.53418 66.977226 86.474007
-202.92528 67.261658 84.816292
-208.31223 67.506119 83.250595
-214.02316 69.111946 78.366898
-219.72826 70.58757 73.795898
-225.8732 73.737602 65.129311
-232.22021 77.501602 54.958801
-238.52017 80.875145 45.73008
-244.58325 83.189682 39.082779
267.5769 117.61369 64.095345
260.19589 112.68474 74.481361
253.93994 110.62765 78.236229
247.54391 108.11172 83.061928
241.25694 105.80373 87.407646
234.73895 102.74575 93.498611
228.39294 100.07173 98.706573
222.49084 98.623116 101.0817
216.74294 97.585464 102.50769
211.11389 96.88044 103.16268
205.40988 95.908829 104.43872
199.59683 94.543365 106.63477
194.12787 94.265137 106.3037
188.62091 93.851044 106.28778
183.17986 93.655441 105.76976
177.64488 93.110443 106.06176
172.02887 92.247482 107.09373
166.38589 91.243668 108.46067
160.88286 90.733391 108.67472
155.52188 90.765701 107.62671
150.17592 90.867523 106.4157
144.84386 91.042595 105.0327
139.58984 91.569672 102.82663
134.40189 92.436874 99.823433
129.04793 92.592468 98.483047
123.63082 92.465515 97.802376
118.29286 92.729568 96.207748
112.85693 92.509941 95.744247
107.48988 92.653473 94.429367
102.09087 92.643112 93.476784
96.76017 93.021713 91.607971
91.317574 92.7799 91.198883
85.920471 92.7995 90.172775
80.540764 92.946793 88.847061
75.106743 92.746429 88.33799
69.58815 91.924164 89.29213
64.206604 92.071266 87.965904
58.879768 92.674461 85.566689
53.496445 92.895683 84.066681
48.059155 92.656082 83.648582
42.656647 92.738609 82.475876
37.301811 93.33226 80.090607
31.946667 94.043076 77.431213
26.558958 94.486763 75.399025
21.208649 95.524231 71.961296
15.714811 94.703461 72.91909
10.284326 94.745537 71.833427
4.8114786 94.05851 72.472984
-0.64925766 93.426582 72.986259
-6.0887938 93.168938 72.614143
-11.512278 93.327415 71.254784
-16.92536 93.944 68.806953
-22.370903 93.430756 69.037918
-27.821741 92.171753 71.046005
-33.252602 91.478508 71.709854
-38.672882 90.561897 72.906456
-44.084145 89.814705 73.701248
-49.478428 88.506714 75.836143
-54.857861 87.362366 77.578613
-60.25457 87.274834 76.809288
-65.636971 86.778755 77.012741
-70.993553 85.821991 78.319405
-76.33577 84.821655 79.728157
-81.677788 84.041687 80.615372
-87.068283 84.173691 79.324768
-92.396385 83.377914 80.250229
-97.730736 82.790367 80.680267
-102.95311 80.976456 84.047829
-108.21217 79.823311 85.834816
-113.50421 79.137321 86.509254
-118.7882 78.472641 87.129089
-124.03416 77.525093 88.432487
-129.22916 76.276711 90.457138
-134.51717 75.863503 90.481644
-139.76421 75.193382 91.125504
-144.92116 73.945816 93.155403
-150.17918 73.47979 93.312492
-155.39719 72.786148 94.015015
-160.71016 72.723228 93.202644
-165.8932 71.910881 94.193985
-171.05516 71.021942 95.371559
-176.33418 70.836197 94.856911
-181.6512 70.861221 93.83287
-187.07428 71.393623 91.585243
-192.34816 71.172798 91.153534
-197.62215 70.96022 90.703606
-203.04924 71.446152 88.56543
-208.48918 71.954201 86.370026
-214.14725 73.355881 82.010292
-219.80617 74.680603 77.833504
-225.81924 77.347565 70.401886
-231.93123 80.251358 62.388191
-238.20024 83.592201 53.308823
-244.1622 85.604813 47.441296
272.83286 123.08965 66.419907
265.91193 119.42672 73.811653
259.36292 116.63171 79.224014
253.0229 114.30467 83.567123
246.96899 112.68879 86.284378
240.78693 110.65172 89.972343
234.48988 108.20175 94.613937
228.42889 106.35767 97.87043
222.7079 105.46576 98.941002
216.98489 104.53374 100.10276
211.03891 102.86168 102.97273
205.12291 101.21867 105.78271
199.3959 100.12773 107.31874
194.01489 100.15665 106.2767
188.60989 100.10673 105.41475
183.23796 100.17871 104.2737
177.81992 100.09066 103.50168
172.22583 99.351753 104.2337
166.52588 98.16906 105.99268
160.91689 97.290398 107.05173
155.57787 97.451324 105.70479
150.27884 97.792076 103.94268
144.95586 98.062401 102.34168
139.6279 98.328621 100.74867
134.4879 99.470657 97.123543
129.11082 99.580688 95.890129
123.69591 99.519951 95.054184
118.25694 99.350441 94.471382
112.90389 99.612175 92.884506
107.51589 99.722031 91.649506
102.07784 99.555649 91.057396
96.729553 99.915611 89.242577
91.437225 100.64369 86.565796
86.034485 100.75266 85.328773
80.654282 101.03067 83.701668
75.087044 100.04366 85.022346
69.623695 99.730064 84.774712
64.194359 99.640945 84.000549
58.938339 100.97067 79.910576
53.556274 101.38459 77.963089
48.145309 101.5906 76.49575
42.680603 101.32367 76.138176
37.274014 101.63763 74.415466
31.90033 102.37666 71.699974
26.490501 102.82359 69.66597
21.135529 104.11765 65.644829
15.659225 103.90464 65.157318
10.205143 104.01665 63.903774
4.6928253 103.08968 65.095192
-0.82256317 101.89062 66.926651
-6.318861 100.76556 68.586914
-11.770854 100.56061 68.084198
-17.192978 101.40263 65.115021
-22.648077 101.21266 64.575455
-28.113613 100.13964 66.121101
-33.565971 99.00325 67.814819
-39.003151 98.697739 67.552216
-44.432888 97.693985 68.93808
-49.851345 96.748703 70.188034
-55.224888 94.396843 74.766335
-60.619659 93.770493 75.269417
-65.994179 92.829956 76.51635
-71.385956 92.555077 76.186806
-76.754883 91.863098 76.848816
-82.096779 90.856941 78.255928
-87.475868 90.629547 77.81839
-92.793167 89.55481 79.393852
-98.124557 88.828354 80.143509
-103.37016 87.211113 83.009895
-108.62421 85.919991 85.106461
-113.92918 85.306168 85.594421
-119.26618 85.053368 85.22702
-124.53815 84.24984 86.168037
-129.78819 83.34655 87.350052
-135.02823 82.455482 88.50605
-140.23119 81.373878 90.115189
-145.36217 79.871597 92.732422
-150.58316 79.120171 93.56147
-155.82121 78.527519 94.013176
-161.06317 78.015121 94.271851
-166.2372 77.121078 95.446167
-171.46916 76.629753 95.660805
-176.73419 76.349274 95.367203
-182.04016 76.287254 94.555771
-187.44019 76.706612 92.586685
-192.79919 76.895035 91.17308
-198.21419 77.310974 89.211487
-203.69318 78.005074 86.58226
-209.22321 78.868813 83.543007
-214.69022 79.399979 81.299706
-220.09923 79.660881 79.70488
-225.8772 81.389366 74.581459
-231.71619 83.263115 69.10144
-238.06822 86.989861 59.15789
-244.23817 89.843414 51.307468
280.74789 135.38663 53.251709
271.60495 126.08076 73.391876
264.3299 121.40473 83.031006
257.80887 118.60376 88.413971
251.60095 116.56174 92.075615
245.85587 115.74576 92.949585
240.04895 114.72477 94.289749
233.78394 112.32571 98.775543
227.72787 110.45872 102.05674
222.08786 109.78477 102.61575
216.63191 109.65769 101.92976
210.70982 108.04878 104.62474
204.78296 106.35569 107.52165
199.02895 105.16474 109.27178
193.53391 104.80572 109.1197
188.07889 104.57176 108.67973
182.61685 104.3037 108.32269
177.3299 104.67071 106.50774
171.88586 104.46869 105.99677
166.31592 103.78073 106.60275
160.8829 103.59872 106.04768
155.45393 103.43277 105.45673
150.17287 103.87368 103.46871
144.67087 103.40169 103.5807
139.26489 103.32868 102.7737
134.05983 104.18169 99.83667
128.84593 105.04962 96.862
123.47488 105.21576 95.501801
118.09885 105.37868 94.15065
112.6779 105.3217 93.304382
107.27986 105.38569 92.178093
101.79983 105.00768 92.073799
96.375107 104.93568 91.264275
91.13871 106.00967 87.801773
85.725357 106.05861 86.709953
80.385513 106.61166 84.449188
74.830681 105.7207 85.531891
69.487152 106.31364 83.179405
64.153961 107.04568 80.498665
58.873383 108.31168 76.582039
53.481876 108.77461 74.524345
48.082375 109.23274 72.474434
42.635792 109.31268 71.30529
37.250629 110.05167 68.59906
31.848127 110.73364 66.027817
26.438797 111.46964 63.327648
20.961454 111.42269 62.446339
15.44088 110.76662 62.985554
9.9413452 110.32262 63.033928
4.4389639 109.72462 63.438492
-1.0498334 109.27665 63.497478
-6.5494576 108.40161 64.551582
-12.015728 108.27465 63.864109
-17.475651 108.39157 62.601135
-22.9352 108.61961 61.082561
-28.414055 107.55859 62.57851
-33.882484 106.30159 64.532898
-39.332767 105.20162 66.123619
-44.765762 103.65356 68.769066
-50.184887 102.42966 70.657211
-55.563656 100.1446 75.038132
-60.963463 99.592659 75.356361
-66.340569 98.579262 76.756325
-71.73204 98.206451 76.655197
-77.090996 97.268501 77.88427
-82.438271 96.326805 79.124168
-87.79306 95.681229 79.667961
-93.129616 94.876923 80.589508
-98.450371 93.99762 81.686607
-103.71319 92.576904 84.062721
-108.91416 90.70047 87.516975
-114.1782 89.69014 88.933243
-119.52614 89.584419 88.216606
-124.80721 88.908257 88.843605
-130.02016 87.715424 90.696632
-135.17819 86.222443 93.260811
-140.35916 85.031158 95.118706
-145.52618 83.854439 96.941216
-150.78322 83.396896 97.059502
-156.05316 83.046181 96.929741
-161.29219 82.524834 97.206696
-166.44019 81.504593 98.666176
-171.71118 81.269974 98.261528
-176.95016 80.841805 98.318848
-182.27718 80.934669 97.138481
-187.65317 81.237984 95.458
-193.03923 81.571205 93.702484
-198.44818 81.983955 91.761307
-203.84921 82.332924 89.967209
-209.33823 83.03965 87.319931
-214.62321 82.817863 86.886261
-220.02518 83.09668 85.256554
-225.72426 84.564682 80.787888
-231.52414 86.347305 75.564651
-237.69025 89.439079 67.20932
-243.63924 91.547256 61.197479
-249.9592 94.893707 52.216995
287.32996 144.1618 48.267075
278.2269 135.11073 67.66256
270.9259 130.47873 77.114616
263.86398 126.32273 85.504097
257.62689 124.26674 89.157532
251.53584 122.54272 92.06411
246.07793 122.54875 91.066933
239.91386 120.51879 94.676094
233.73984 118.38475 98.52121
227.63885 116.38274 102.07474
221.87386 115.33778 103.46473
216.29694 114.83873 103.62074
210.25291 112.82469 107.20977
204.47289 111.59176 109.03569
198.88287 110.94262 109.53674
193.49088 110.94873 108.54873
187.97585 110.5247 108.53973
182.44885 110.04269 108.66576
176.96786 109.71371 108.44173
171.60887 109.82685 107.21169
166.27678 110.06168 105.70267
161.04288 110.7047 103.26569
155.67288 110.8297 102.00668
150.40591 111.40464 99.721588
145.08788 111.7937 97.857941
139.70592 111.92973 96.569809
134.33289 112.11673 95.163994
128.98988 112.47076 93.379265
123.65085 112.87572 91.476303
118.26686 113.07864 90.032661
112.7919 112.8327 89.617996
107.31189 112.54366 89.302994
101.92584 112.76569 87.813362
96.480049 112.67267 87.046097
91.248192 113.89264 83.266953
85.790741 113.78064 82.544281
80.477234 114.62963 79.612419
74.941086 114.00464 80.065987
69.609192 114.84168 77.15918
64.305038 115.99364 73.525505
58.98864 117.18774 69.789177
53.588722 117.80368 67.384422
48.143635 118.08067 65.758911
42.699276 118.41967 63.987133
37.325684 119.60264 60.270718
31.952541 120.96561 56.134155
26.504656 121.65959 53.539867
20.909758 120.47564 55.282177
15.398569 120.33865 54.606655
9.8316059 119.24459 56.1427
4.3226223 119.01068 55.695885
-1.2266932 117.82761 57.444565
-6.7361975 117.30566 57.664387
-12.252359 116.37466 58.833393
-17.728449 116.62759 57.258118
-23.202179 117.23357 54.861328
-28.700771 116.52361 55.521416
-34.193726 114.92464 58.245796
-39.666569 112.86763 62.042725
-45.11425 111.14362 65.066139
-50.546497 109.79465 67.224289
-55.952209 108.09566 70.1987
-61.35191 106.89861 72.004868
-66.727516 105.45267 74.399239
-72.118454 104.7906 74.964104
-77.469879 103.50563 76.987259
-82.842667 102.86854 77.500145
-88.199684 102.12458 78.261711
-93.589584 101.93059 77.740036
-98.870285 100.39567 80.357605
-104.1232 98.75 83.234566
-109.33317 96.870132 86.665955
-114.62718 96.088783 87.527725
-119.94516 95.621353 87.655342
-125.18517 94.499649 89.31971
-130.35414 92.929878 92.034492
-135.5522 91.733849 93.878052
-140.78122 90.878525 94.922348
-146.02017 90.177094 95.609322
-151.25021 89.475174 96.297234
-156.51721 89.063515 96.304138
-161.72719 88.318619 97.095299
-166.96916 87.821487 97.306725
-172.22414 87.438232 97.251556
-177.52521 87.327141 96.549995
-182.77222 86.920982 96.550964
-188.16319 87.289024 94.722458
-193.5442 87.554939 93.133392
-199.0652 88.483086 89.98082
-204.4492 88.701912 88.500771
-209.91721 89.284775 86.159622
-215.15016 88.810677 86.317238
-220.47615 88.736298 85.530373
-226.04723 89.678749 82.334198
-231.74623 91.059082 78.097473
-237.81718 93.804871 70.621094
-243.65216 95.516167 65.588539
-249.89819 98.644302 57.192574
286.18997 147.49973 54.55143
276.32684 136.36476 78.467369
269.79691 133.66977 83.508865
262.65591 129.23271 92.46273
256.64792 127.74474 94.811569
250.70599 126.39374 96.859207
245.28387 126.47577 95.694046
239.22287 124.70779 98.683655
232.91887 122.14674 103.4547
226.77887 119.98577 107.33762
220.77284 118.15075 110.48973
215.24496 117.75271 110.41376
209.40096 116.31972 112.66772
203.86485 115.84574 112.76376
198.45584 115.78076 111.93771
192.94487 115.36776 111.90076
187.39886 114.81371 112.17873
181.83891 114.1907 112.61873
176.48888 114.31675 111.36375
171.10486 114.32475 110.37671
165.83189 114.7726 108.39268
160.66083 115.6618 105.40971
155.33287 115.95582 103.77368
150.09491 116.65769 101.21071
144.83786 117.31973 98.735672
139.59784 118.1097 95.971344
134.15984 118.02872 95.17807
128.80782 118.36578 93.438362
123.38882 118.39967 92.382988
118.05087 118.85468 90.371262
112.59487 118.72678 89.685287
107.22188 119.05069 87.970078
101.92088 119.82365 85.233765
96.509842 120.01265 83.823654
91.126465 120.38767 81.988342
85.664703 120.30271 81.200882
80.342163 121.16073 78.260452
74.931061 121.48567 76.540398
69.641121 122.76366 72.637207
64.297379 123.75271 69.392807
58.966038 124.98371 65.593559
53.525425 125.39765 63.659313
48.105534 126.07256 61.125362
42.638729 126.39156 59.406555
37.316036 128.31459 54.011265
31.951172 130.07065 48.993511
26.536654 131.52464 44.66235
20.833536 129.26865 48.842651
15.251093 128.39462 49.854393
9.6060772 126.28864 53.695511
4.0777493 125.9026 53.59264
-1.4675496 125.05667 54.54575
-6.9834676 124.71365 54.344193
-12.517666 123.69861 55.691132
-18.018282 123.48558 55.190315
-23.48715 125.01061 50.687382
-29.000259 124.52463 50.814499
-34.512066 123.22164 52.831104
-40.001972 120.60459 57.880249
-45.469067 119.16162 60.222019
-50.918461 117.68563 62.64893
-56.353752 116.49355 64.420494
-61.75877 114.74862 67.473969
-67.140007 113.00758 70.521317
-72.504486 111.33572 73.416557
-77.857277 109.90266 75.756058
-83.223984 109.03272 76.797913
-88.603577 108.50958 77.034813
-93.96212 107.76656 77.785934
-99.250664 106.26564 80.298935
-104.4922 104.43456 83.5755
-109.71215 102.61462 86.83754
-114.95915 101.30655 88.908905
-120.19617 100.07962 90.799591
-125.3952 98.634918 93.19696
-130.53816 96.88607 96.305191
-135.75618 95.911362 97.614067
-141.04218 95.529587 97.544945
-146.35117 95.340469 97.024826
-151.63219 94.981789 96.901398
-156.90518 94.58812 96.861343
-162.18118 94.241562 96.711182
